ply
        format ascii 1.0
        element vertex 72752
        property float x
        property float y
        property float z
        property uchar red
        property uchar green
        property uchar blue
        end_header
3.855788 -1.609108 -10.686907 208 158 94
6.481013 -2.683544 -17.822784 210 160 98
7.257732 -2.914089 -19.353952 211 161 100
6.429003 -2.561934 -17.015106 211 162 101
6.390935 -2.402266 -15.954674 207 162 103
7.636364 -2.753247 -18.285715 211 168 111
7.688312 -2.753247 -18.285715 206 162 105
7.765472 -2.762215 -18.345278 206 163 106
7.817590 -2.762215 -18.345278 203 161 104
7.720635 -2.692064 -17.879366 211 169 112
7.771429 -2.692064 -17.879366 213 169 112
7.225806 -2.486804 -16.516129 208 163 105
7.607362 -2.601227 -17.276073 210 164 106
7.319648 -2.486804 -16.516129 216 170 113
5.709091 -1.927273 -12.800000 214 170 114
5.745454 -1.927273 -12.800000 206 164 109
8.253164 -2.683544 -17.822784 201 156 98
8.200000 -2.650000 -17.600000 204 158 99
8.173374 -2.625387 -17.436533 208 164 106
8.222910 -2.625387 -17.436533 199 156 101
8.429022 -2.675079 -17.766562 196 156 102
8.479495 -2.675079 -17.766562 192 154 101
8.779221 -2.753247 -18.285715 189 152 100
8.369231 -2.609231 -17.329231 196 160 108
8.366973 -2.593272 -17.223242 196 161 108
8.190476 -2.523809 -16.761906 194 159 107
8.238095 -2.523809 -16.761906 194 157 106
7.846575 -2.323288 -15.430137 196 157 109
7.741935 -2.279570 -15.139785 205 166 113
7.805930 -2.285714 -15.180593 208 169 114
7.849057 -2.285714 -15.180593 201 161 109
8.714286 -2.523809 -16.761906 191 151 100
10.151724 -2.924138 -19.420691 191 152 101
8.984985 -2.546546 -16.912912 180 140 89
8.193029 -2.273458 -15.099195 190 148 98
8.192000 -2.261333 -15.018666 195 153 108
8.126316 -2.231579 -14.821053 201 159 114
8.504109 -2.323288 -15.430137 195 154 104
7.750599 -2.033573 -13.505995 180 144 100
7.553488 -1.972093 -13.097674 182 146 102
7.555555 -1.962963 -13.037037 179 145 99
7.488585 -1.936073 -12.858447 178 144 96
7.737089 -1.990610 -13.220657 183 147 97
9.769912 -2.501475 -16.613569 182 146 95
9.875371 -2.516320 -16.712166 178 142 93
10.822006 -2.744337 -18.226538 174 140 93
10.873786 -2.744337 -18.226538 175 140 94
10.925567 -2.744337 -18.226538 183 147 101
10.977346 -2.744337 -18.226538 180 146 100
11.064935 -2.753247 -18.285715 175 142 97
11.080906 -2.744337 -18.226538 173 139 94
10.650155 -2.625387 -17.436533 180 144 99
8.907216 -2.185567 -14.515464 181 145 98
8.879795 -2.168798 -14.404092 183 147 98
8.920716 -2.168798 -14.404092 183 148 100
13.687500 -3.312500 -22.000000 177 142 95
2.000000 -3.176471 -20.705883 234 175 105
2.007169 -3.096774 -20.186380 235 178 107
2.117647 -3.176471 -20.705883 231 176 107
4.325926 -3.200000 -20.859259 219 166 96
4.183745 -3.053004 -19.901060 221 168 98
4.225352 -3.042253 -19.830986 222 169 99
4.251748 -3.020979 -19.692308 225 172 102
4.307693 -3.020979 -19.692308 230 177 107
4.363636 -3.020979 -19.692308 230 177 107
4.419580 -3.020979 -19.692308 226 173 103
4.238410 -2.860927 -18.649006 221 168 97
4.194175 -2.796117 -18.226538 219 166 95
4.245955 -2.796117 -18.226538 217 163 92
3.909091 -2.454545 -16.000000 221 170 102
4.070176 -2.526316 -16.467836 222 170 102
4.116959 -2.526316 -16.467836 222 169 101
4.225519 -2.563798 -16.712166 215 162 94
4.324324 -2.594594 -16.912912 218 165 97
4.885906 -2.899329 -18.899328 220 167 99
4.229885 -2.482759 -16.183908 222 169 102
4.156425 -2.413408 -15.731844 224 171 103
4.201118 -2.413408 -15.731844 230 177 110
5.507246 -3.130435 -20.405798 231 178 111
5.585454 -3.141818 -20.480000 221 168 101
4.746177 -2.642202 -17.223242 228 175 107
5.640288 -3.107914 -20.258993 228 175 107
5.697842 -3.107914 -20.258993 224 171 103
5.755396 -3.107914 -20.258993 224 171 104
6.175438 -3.031579 -19.761404 220 171 106
6.231579 -3.031579 -19.761404 210 161 96
3.417769 -1.633270 -10.646502 208 157 93
3.428571 -1.624060 -10.586466 216 165 101
6.258503 -2.938776 -19.156462 219 169 104
6.367347 -2.938776 -19.156462 220 170 104
6.251656 -2.860927 -18.649006 218 168 102
6.304636 -2.860927 -18.649006 222 172 106
6.421052 -2.842105 -18.526316 215 165 99
6.473684 -2.842105 -18.526316 216 165 100
6.200000 -2.700000 -17.600000 216 165 99
3.824092 -1.652008 -10.768642 220 169 103
3.847328 -1.648855 -10.748092 213 162 97
6.369906 -2.708464 -17.655172 210 159 96
6.345609 -2.447592 -15.954674 212 164 103
6.390935 -2.447592 -15.954674 212 165 104
7.817590 -2.814332 -18.345278 207 164 105
7.720635 -2.742857 -17.879366 214 172 114
4.812500 -1.687500 -11.000000 214 169 110
8.150000 -2.700000 -17.600000 202 156 98
8.123839 -2.674923 -17.436533 212 165 107
7.927928 -2.594594 -16.912912 214 168 109
6.478049 -2.107317 -13.736586 207 163 105
8.024024 -2.594594 -16.912912 199 157 100
8.479495 -2.725552 -17.766562 191 151 97
8.318043 -2.642202 -17.223242 196 157 101
8.366973 -2.642202 -17.223242 193 154 95
8.467692 -2.658462 -17.329231 193 154 96
7.762803 -2.328841 -15.180593 198 158 103
7.805930 -2.328841 -15.180593 199 159 103
7.849057 -2.328841 -15.180593 200 161 106
10.096552 -2.979310 -19.420691 193 153 101
8.149333 -2.304000 -15.018666 189 148 96
7.836735 -2.204082 -14.367347 194 152 102
7.877551 -2.204082 -14.367347 199 156 106
8.168421 -2.273684 -14.821053 198 156 103
11.955390 -3.211896 -20.936804 186 146 98
11.882353 -3.176471 -20.705883 185 148 102
11.941176 -3.176471 -20.705883 181 144 98
7.573086 -2.004640 -13.067286 178 142 94
7.488585 -1.972603 -12.858447 175 138 90
7.525114 -1.972603 -12.858447 184 146 95
7.666667 -2.000000 -13.037037 192 153 104
7.812207 -2.028169 -13.220657 181 144 97
10.482759 -2.708464 -17.655172 179 144 99
12.307693 -3.164835 -20.630037 175 141 96
12.411765 -3.176471 -20.705883 178 144 98
11.315789 -2.842105 -18.526316 187 149 101
8.907216 -2.226804 -14.515464 182 143 91
8.879795 -2.209719 -14.404092 188 150 95
8.920716 -2.209719 -14.404092 193 156 101
13.687500 -3.375000 -22.000000 181 145 92
1.459649 -3.087719 -19.761404 232 181 112
1.529010 -3.003413 -19.221844 228 176 105
1.622378 -3.076923 -19.692308 230 179 109
1.672474 -3.066202 -19.623693 229 179 107
1.835125 -3.154122 -20.186380 237 182 110
1.941176 -3.235294 -20.705883 239 181 110
2.000000 -3.235294 -20.705883 235 176 106
2.058824 -3.235294 -20.705883 233 176 106
2.117647 -3.235294 -20.705883 227 172 102
2.200743 -3.271375 -20.936804 227 173 103
3.401198 -2.634731 -16.862276 221 168 98
3.449102 -2.634731 -16.862276 215 162 92
3.497006 -2.634731 -16.862276 217 164 94
4.385185 -3.259259 -20.859259 219 166 96
4.374101 -3.165468 -20.258993 221 168 98
4.431654 -3.165468 -20.258993 223 170 100
4.489209 -3.165468 -20.258993 224 171 101
4.429066 -3.044983 -19.487888 221 167 96
3.868657 -2.626866 -16.811941 223 169 97
3.916418 -2.626866 -16.811941 225 171 99
3.964179 -2.626866 -16.811941 225 171 100
3.976331 -2.603550 -16.662722 222 170 102
3.863636 -2.500000 -16.000000 222 171 104
3.876056 -2.478873 -15.864789 224 173 105
4.178041 -2.611276 -16.712166 221 169 101
4.229885 -2.528736 -16.183908 220 167 97
4.156425 -2.458101 -15.731844 227 174 104
4.189415 -2.451253 -15.688023 231 178 108
4.153006 -2.404372 -15.387979 233 180 111
4.338983 -2.485876 -15.909604 229 176 108
4.485549 -2.543353 -16.277456 227 174 106
5.640288 -3.165468 -20.258993 218 164 96
5.697842 -3.165468 -20.258993 216 162 95
5.904059 -3.247232 -20.782288 222 169 101
5.647059 -3.044983 -19.487888 223 169 102
3.961539 -2.115385 -13.538462 223 169 102
4.473118 -2.365591 -15.139785 213 159 92
6.212454 -3.223443 -20.630037 210 159 93
6.248175 -3.211679 -20.554745 219 168 102
6.306570 -3.211679 -20.554745 222 173 107
6.364964 -3.211679 -20.554745 223 173 108
6.111111 -3.055556 -19.555555 220 171 105
6.103093 -3.024055 -19.353952 212 162 97
3.555556 -1.746032 -11.174603 213 162 96
3.573123 -1.739130 -11.130435 217 165 99
4.983606 -2.404372 -15.387979 221 169 103
6.367347 -2.993197 -19.156462 215 162 96
6.251656 -2.913907 -18.649006 216 164 98
4.193832 -1.938326 -12.405287 220 169 104
6.357616 -2.913907 -18.649006 222 171 106
6.250000 -2.750000 -17.600000 221 170 106
6.300000 -2.750000 -17.600000 217 166 102
6.430380 -2.784810 -17.822784 217 167 104
6.227273 -2.500000 -16.000000 217 169 107
7.122581 -2.838710 -18.167742 216 168 106
5.946524 -2.352941 -15.058824 212 164 101
5.989305 -2.352941 -15.058824 212 164 101
6.390935 -2.492918 -15.954674 211 163 100
6.234333 -2.397820 -15.346049 210 164 102
6.277929 -2.397820 -15.346049 213 168 107
7.792208 -2.857143 -18.285715 213 169 109
7.844156 -2.857143 -18.285715 210 168 108
7.896104 -2.857143 -18.285715 214 172 113
8.123839 -2.724458 -17.436533 212 164 105
8.123077 -2.707692 -17.329231 213 166 105
7.975976 -2.642643 -16.912912 210 165 104
8.024024 -2.642643 -16.912912 199 156 97
7.641791 -2.189055 -14.009951 193 152 96
7.720000 -2.200000 -14.080000 200 158 101
11.895911 -3.271375 -20.936804 179 139 89
11.955390 -3.271375 -20.936804 182 142 92
11.838828 -3.223443 -20.630037 184 146 99
11.897436 -3.223443 -20.630037 184 145 98
7.737089 -2.065728 -13.220657 196 156 106
7.720280 -2.051282 -13.128205 196 156 109
7.812207 -2.065728 -13.220657 181 143 99
12.249084 -3.223443 -20.630037 174 139 97
12.352942 -3.235294 -20.705883 170 138 94
12.411765 -3.235294 -20.705883 176 144 98
13.250000 -3.437500 -22.000000 181 148 102
11.751724 -3.034483 -19.420691 181 145 99
11.263158 -2.894737 -18.526316 185 147 99
11.278688 -2.885246 -18.465574 192 151 100
11.220779 -2.857143 -18.285715 186 145 89
11.163987 -2.829582 -18.109325 192 151 93
11.324676 -2.857143 -18.285715 191 151 94
13.687500 -3.437500 -22.000000 186 148 93
1.459649 -3.143860 -19.761404 235 180 109
1.529010 -3.058021 -19.221844 236 180 108
1.616725 -3.121951 -19.623693 238 185 113
1.621622 -3.027027 -19.027027 235 183 112
1.728223 -3.121951 -19.623693 236 182 111
1.835125 -3.211470 -20.186380 239 183 111
1.892473 -3.211470 -20.186380 237 179 107
2.000000 -3.294118 -20.705883 235 178 107
2.058824 -3.294118 -20.705883 229 173 104
2.141264 -3.330855 -20.936804 230 175 106
4.375000 -3.500000 -22.000000 222 169 99
4.437500 -3.500000 -22.000000 224 171 100
3.522936 -2.740061 -17.223242 222 169 99
4.562500 -3.500000 -22.000000 220 167 97
4.625000 -3.500000 -22.000000 222 169 99
4.251748 -3.132867 -19.692308 220 167 97
4.307693 -3.132867 -19.692308 215 162 92
3.300971 -2.174757 -13.669903 226 175 108
4.217765 -2.567335 -16.137535 226 173 102
4.168067 -2.509804 -15.775910 227 174 103
4.201118 -2.502793 -15.731844 228 175 105
4.245810 -2.502793 -15.731844 231 178 108
5.845018 -3.306273 -20.782288 230 175 107
5.904059 -3.306273 -20.782288 232 178 110
5.963099 -3.306273 -20.782288 223 168 100
5.647059 -3.100346 -19.487888 217 162 95
3.952038 -2.148681 -13.505995 218 163 96
6.167273 -3.258182 -20.480000 215 162 96
6.158273 -3.223022 -20.258993 221 170 104
6.306570 -3.270073 -20.554745 220 170 104
4.939891 -2.448087 -15.387979 225 172 105
3.806452 -1.806452 -11.354838 221 168 102
3.830986 -1.802817 -11.331992 223 172 106
4.304933 -2.008969 -12.627803 224 173 107
4.460829 -2.064516 -12.976958 220 169 105
6.172840 -2.765432 -17.382715 224 174 111
6.222222 -2.765432 -17.382715 222 172 109
6.350000 -2.800000 -17.600000 218 168 105
6.400000 -2.800000 -17.600000 222 173 110
6.511041 -2.826499 -17.766562 224 175 112
6.561514 -2.826499 -17.766562 221 172 109
7.064935 -2.909091 -18.285715 217 169 105
6.850000 -2.800000 -17.600000 213 165 102
7.122581 -2.890323 -18.167742 211 163 100
7.015773 -2.826499 -17.766562 203 155 92
6.871166 -2.748466 -17.276073 205 156 93
6.920245 -2.748466 -17.276073 209 161 96
6.969325 -2.748466 -17.276073 207 159 95
4.071174 -1.594306 -10.021353 211 164 102
7.456311 -2.899676 -18.226538 219 173 111
7.973244 -2.996655 -18.836121 214 168 107
7.868853 -2.937705 -18.465574 213 168 107
5.667897 -1.653136 -10.391144 199 158 99
11.630997 -3.306273 -20.782288 205 156 98
11.354838 -3.211470 -20.186380 196 153 99
11.749078 -3.306273 -20.782288 185 146 96
11.895911 -3.330855 -20.936804 183 143 91
11.955390 -3.330855 -20.936804 185 144 92
12.014870 -3.330855 -20.936804 184 144 95
12.235294 -3.294118 -20.705883 179 141 99
12.294118 -3.294118 -20.705883 173 139 98
12.352942 -3.294118 -20.705883 167 135 92
12.411765 -3.294118 -20.705883 172 141 94
13.250000 -3.500000 -22.000000 184 150 101
11.862069 -3.089655 -19.420691 188 145 93
11.331147 -2.937705 -18.465574 197 153 97
11.163987 -2.881029 -18.109325 203 160 103
11.324676 -2.909091 -18.285715 192 150 96
13.687500 -3.500000 -22.000000 185 144 92
1.337979 -3.177700 -19.623693 234 185 118
1.403509 -3.200000 -19.761404 232 182 114
1.459649 -3.200000 -19.761404 233 181 113
1.515790 -3.200000 -19.761404 234 179 111
1.555556 -3.166667 -19.555555 231 176 106
1.572881 -3.091525 -19.091526 237 184 112
1.621622 -3.081081 -19.027027 234 181 109
1.653333 -3.040000 -18.773333 224 170 98
1.667752 -2.970684 -18.345278 225 169 98
1.760000 -3.040000 -18.773333 235 178 108
2.000000 -3.352941 -20.705883 235 178 111
2.244776 -2.722388 -16.811941 231 180 110
2.438095 -2.895238 -17.879366 232 181 110
2.488889 -2.895238 -17.879366 229 176 105
4.312500 -3.562500 -22.000000 220 168 96
4.375000 -3.562500 -22.000000 223 171 98
4.437500 -3.562500 -22.000000 228 176 104
4.298508 -3.402985 -21.014925 230 178 107
4.562500 -3.562500 -22.000000 229 176 106
4.625000 -3.562500 -22.000000 228 175 105
4.687500 -3.562500 -22.000000 231 178 108
4.053333 -3.040000 -18.773333 225 172 102
4.026144 -2.980392 -18.405230 217 164 94
4.909747 -3.292419 -20.332130 230 178 109
4.160000 -2.605714 -16.091429 232 179 109
4.217765 -2.613180 -16.137535 229 176 105
4.251429 -2.605714 -16.091429 223 170 100
4.260623 -2.583569 -15.954674 225 172 102
4.293785 -2.576271 -15.909604 223 170 100
5.446808 -3.234043 -19.971632 219 166 96
3.952038 -2.187050 -13.505995 222 168 99
6.021505 -3.268817 -20.186380 223 170 101
6.078853 -3.268817 -20.186380 221 168 99
6.049470 -3.222615 -19.901060 222 169 101
6.215827 -3.280576 -20.258993 219 168 99
4.939891 -2.491803 -15.387979 227 174 106
4.983606 -2.491803 -15.387979 226 173 105
3.837398 -1.853659 -11.447154 216 163 95
4.193832 -2.008811 -12.405287 214 162 94
4.304933 -2.044843 -12.627803 217 165 97
4.460829 -2.101382 -12.976958 221 170 103
6.172840 -2.814815 -17.382715 221 170 106
6.280374 -2.841121 -17.545172 219 168 104
6.350000 -2.850000 -17.600000 215 164 100
6.400000 -2.850000 -17.600000 219 168 104
6.511041 -2.876972 -17.766562 224 174 109
6.561514 -2.876972 -17.766562 222 172 107
7.064935 -2.961039 -18.285715 218 168 103
6.850000 -2.850000 -17.600000 210 161 95
7.122581 -2.941936 -18.167742 205 157 91
7.105431 -2.913738 -17.993610 204 155 90
6.871166 -2.797546 -17.276073 209 160 94
6.920245 -2.797546 -17.276073 213 164 98
6.969325 -2.797546 -17.276073 217 169 103
7.404531 -2.951456 -18.226538 222 174 109
7.456311 -2.951456 -18.226538 221 173 109
7.508090 -2.951456 -18.226538 206 158 95
7.919733 -3.050167 -18.836121 219 172 109
7.894040 -3.019868 -18.649006 213 166 102
7.817590 -2.970684 -18.345278 209 163 100
7.869707 -2.970684 -18.345278 209 163 101
7.876289 -2.350515 -14.515464 195 155 99
5.667897 -1.682657 -10.391144 194 154 95
11.630997 -3.365314 -20.782288 205 159 106
8.800000 -2.533333 -15.644444 195 152 103
8.819944 -2.526316 -15.601108 187 145 98
8.888889 -2.533333 -15.644444 196 153 102
12.294118 -3.352941 -20.705883 184 148 103
12.352942 -3.352941 -20.705883 177 142 95
8.377172 -2.263027 -13.975186 178 143 91
8.416873 -2.263027 -13.975186 191 153 100
8.477612 -2.268657 -14.009951 194 153 101
11.226230 -2.990164 -18.465574 197 155 103
11.168831 -2.961039 -18.285715 195 153 100
10.666667 -2.814815 -17.382715 202 159 105
10.211764 -2.682353 -16.564707 199 156 103
10.866044 -2.841121 -17.545172 188 147 94
11.266881 -2.932476 -18.109325 178 137 86
1.572881 -3.145763 -19.091526 226 173 104
1.573771 -3.042623 -18.465574 232 178 108
1.615635 -3.022801 -18.345278 222 168 98
1.656958 -3.003236 -18.226538 217 162 93
1.708738 -3.003236 -18.226538 228 172 105
2.051282 -2.643875 -16.045584 233 184 115
1.994580 -2.514905 -15.262873 237 188 119
1.968586 -2.429319 -14.743456 237 187 118
2.010471 -2.429319 -14.743456 235 185 114
2.333333 -2.761905 -16.761906 228 175 105
2.380952 -2.761905 -16.761906 226 173 103
2.428571 -2.761905 -16.761906 226 173 103
2.009662 -2.241546 -13.603865 229 176 106
1.764023 -1.794971 -10.893617 224 171 101
4.375000 -3.625000 -22.000000 226 174 101
4.437500 -3.625000 -22.000000 228 176 103
4.500000 -3.625000 -22.000000 230 177 106
4.258993 -3.338130 -20.258993 233 180 110
4.316547 -3.338130 -20.258993 235 182 112
4.053333 -3.093333 -18.773333 231 178 108
4.026144 -3.032680 -18.405230 224 171 101
4.588235 -3.411765 -20.705883 223 170 100
5.562500 -3.625000 -22.000000 226 173 103
4.067797 -2.621469 -15.909604 229 176 106
4.112994 -2.621469 -15.909604 228 175 105
4.217765 -2.659026 -16.137535 224 171 101
4.263610 -2.659026 -16.137535 226 173 103
4.820513 -2.974359 -18.051283 230 177 107
5.277778 -3.222222 -19.555555 232 179 109
5.446808 -3.290780 -19.971632 230 177 107
5.647059 -3.211073 -19.487888 225 172 102
5.702422 -3.211073 -19.487888 224 171 101
5.868512 -3.211073 -19.487888 212 159 89
5.863014 -3.178082 -19.287672 216 163 93
5.877551 -3.156463 -19.156462 220 167 97
6.222222 -3.222222 -19.555555 221 168 98
5.107345 -2.621469 -15.909604 221 168 99
5.152543 -2.621469 -15.909604 218 165 97
5.257143 -2.651428 -16.091429 222 169 101
5.302857 -2.651428 -16.091429 225 171 103
5.243698 -2.599440 -15.775910 220 166 99
5.186813 -2.549451 -15.472528 221 168 99
5.104558 -2.487936 -15.099195 222 169 99
5.147453 -2.487936 -15.099195 221 169 99
5.190349 -2.487936 -15.099195 223 172 102
5.233244 -2.487936 -15.099195 222 172 103
5.276139 -2.487936 -15.099195 222 171 103
5.207349 -2.435696 -14.782152 223 173 106
5.277045 -2.448549 -14.860158 219 168 102
6.222222 -2.864197 -17.382715 217 166 101
6.350000 -2.900000 -17.600000 220 169 103
6.750000 -2.900000 -17.600000 213 162 96
6.800000 -2.900000 -17.600000 211 160 94
6.850000 -2.900000 -17.600000 210 160 94
7.168831 -3.012987 -18.285715 214 164 98
7.463087 -3.114094 -18.899328 212 162 95
7.508090 -3.003236 -18.226538 209 160 96
7.919733 -3.103679 -18.836121 213 165 101
7.973244 -3.103679 -18.836121 215 167 103
7.817590 -3.022801 -18.345278 212 164 100
7.876289 -2.391752 -14.515464 193 152 96
7.718593 -2.331658 -14.150754 197 156 98
7.778337 -2.337532 -14.186398 200 156 97
8.000000 -2.391752 -14.515464 198 152 92
8.909091 -2.636364 -16.000000 210 162 105
8.731302 -2.570637 -15.601108 208 163 110
8.608696 -2.521739 -15.304348 196 153 106
8.652174 -2.521739 -15.304348 184 142 95
8.695652 -2.521739 -15.304348 196 153 102
9.609196 -2.666667 -16.183908 187 150 101
9.438202 -2.606742 -15.820225 190 151 99
8.356436 -2.297030 -13.940594 189 149 95
8.273170 -2.263415 -13.736586 191 149 95
8.477612 -2.308458 -14.009951 190 149 95
10.190476 -2.761905 -16.761906 196 154 102
10.207715 -2.753709 -16.712166 193 152 100
10.285714 -2.761905 -16.761906 191 150 98
10.211764 -2.729412 -16.564707 193 153 101
10.732307 -2.855385 -17.329231 184 144 92
10.915888 -2.890966 -17.545172 181 141 89
0.017094 -0.504274 -3.008547 238 188 120
1.750000 -3.687500 -22.000000 239 187 121
1.633803 -3.323944 -19.830986 235 182 116
1.627119 -3.200000 -19.091526 239 186 119
1.626230 -3.095082 -18.465574 235 182 114
1.656958 -3.055016 -18.226538 230 176 109
1.760000 -3.146667 -18.773333 231 177 111
2.312500 -3.687500 -22.000000 244 195 133
2.375000 -3.687500 -22.000000 241 193 131
2.437500 -3.687500 -22.000000 243 194 132
2.421053 -3.105263 -18.526316 237 187 118
2.387302 -2.996825 -17.879366 236 186 117
2.385093 -2.931677 -17.490683 236 184 114
2.052356 -2.471204 -14.743456 230 177 107
2.020202 -2.383838 -14.222222 227 174 104
2.024814 -2.342432 -13.975186 224 171 101
2.064516 -2.342432 -13.975186 222 169 99
2.104218 -2.342432 -13.975186 227 174 104
2.143921 -2.342432 -13.975186 230 177 107
2.183623 -2.342432 -13.975186 232 179 109
2.223325 -2.342432 -13.975186 230 177 107
1.764023 -1.825919 -10.893617 220 168 97
1.794971 -1.825919 -10.893617 219 167 97
4.437500 -3.687500 -22.000000 226 174 101
3.789474 -3.105263 -18.526316 225 172 101
4.258993 -3.395684 -20.258993 233 180 110
4.687500 -3.687500 -22.000000 233 180 110
4.470588 -3.470588 -20.705883 232 179 109
4.812500 -3.687500 -22.000000 232 179 109
4.263473 -2.826347 -16.862276 226 173 103
4.285714 -2.809524 -16.761906 229 176 106
4.160000 -2.697143 -16.091429 228 175 105
4.447130 -2.851964 -17.015106 224 171 101
5.166667 -3.277778 -19.555555 226 173 103
5.222222 -3.277778 -19.555555 229 176 106
5.187713 -3.221843 -19.221844 231 178 108
5.069307 -3.115512 -18.587460 231 178 108
5.299036 -3.035370 -18.109325 230 177 107
5.167702 -2.931677 -17.490683 229 176 106
5.863014 -3.232877 -19.287672 224 171 101
4.909091 -2.681818 -16.000000 225 172 102
4.954545 -2.681818 -16.000000 227 174 104
5.146199 -2.760234 -16.467836 228 175 105
6.166667 -3.277778 -19.555555 231 178 108
5.286136 -2.784661 -16.613569 233 180 110
5.107345 -2.666667 -15.909604 229 176 106
4.956522 -2.565217 -15.304348 223 170 100
5.154062 -2.644258 -15.775910 227 173 104
5.257791 -2.674221 -15.954674 229 175 107
5.303116 -2.674221 -15.954674 224 170 101
5.215470 -2.607735 -15.558011 223 170 100
5.230769 -2.593407 -15.472528 230 177 107
5.147453 -2.530831 -15.099195 229 176 106
5.190349 -2.530831 -15.099195 230 177 107
5.205333 -2.517333 -15.018666 228 176 106
5.262032 -2.524064 -15.058824 221 170 101
5.248677 -2.497355 -14.899471 222 170 103
5.347594 -2.524064 -15.058824 219 166 100
5.205741 -2.258373 -13.473684 215 164 97
7.355705 -3.167785 -18.899328 219 169 102
7.484746 -3.200000 -19.091526 223 172 106
4.984749 -2.056645 -12.270152 226 177 110
5.063736 -2.074725 -12.378022 228 178 112
5.178571 -2.107143 -12.571428 219 170 105
5.250555 -2.093126 -12.487804 216 167 102
6.659218 -2.636872 -15.731844 218 169 104
5.251641 -2.065645 -12.323852 219 171 106
7.711340 -2.432990 -14.515464 197 153 97
7.752577 -2.432990 -14.515464 203 159 105
5.342756 -1.667845 -9.950530 202 159 104
7.678392 -2.371859 -14.150754 199 157 98
7.718593 -2.371859 -14.150754 200 159 98
7.758794 -2.371859 -14.150754 203 159 99
5.748148 -1.748148 -10.429629 201 154 93
8.103896 -2.451948 -14.628572 203 155 93
8.608696 -2.565217 -15.304348 193 151 99
8.652174 -2.565217 -15.304348 183 142 91
12.000000 -3.470588 -20.705883 191 152 103
12.058824 -3.470588 -20.705883 185 147 100
8.234146 -2.302439 -13.736586 192 150 94
8.153846 -2.269231 -13.538462 195 152 97
8.312195 -2.302439 -13.736586 194 153 99
10.160237 -2.801187 -16.712166 186 147 94
10.207715 -2.801187 -16.712166 185 147 95
10.409638 -2.843374 -16.963856 192 155 104
10.683077 -2.904615 -17.329231 191 153 102
10.866044 -2.940810 -17.545172 179 140 88
10.915888 -2.940810 -17.545172 183 142 89
0.008269 -0.496124 -2.910594 234 184 116
0.016537 -0.496124 -2.910594 236 186 117
1.626230 -3.147541 -18.465574 239 185 120
1.032258 -1.935484 -11.354838 240 186 121
1.068826 -1.943320 -11.400809 238 186 121
1.709199 -2.848665 -16.712166 242 193 131
1.730994 -2.807018 -16.467836 242 194 132
2.375000 -3.750000 -22.000000 239 191 128
2.130031 -2.972136 -17.436533 239 189 122
2.179567 -2.972136 -17.436533 236 186 117
2.051282 -2.735043 -16.045584 234 184 115
1.994580 -2.601626 -15.262873 234 184 115
1.968586 -2.513089 -14.743456 233 183 114
1.964194 -2.455243 -14.404092 234 182 112
1.969849 -2.412060 -14.150754 232 179 109
1.980198 -2.376238 -13.940594 227 174 104
2.019802 -2.376238 -13.940594 222 169 99
2.039216 -2.352941 -13.803922 220 167 97
2.099010 -2.376238 -13.940594 224 171 101
2.138614 -2.376238 -13.940594 229 176 106
2.183623 -2.382134 -13.975186 233 180 110
2.280000 -2.400000 -14.080000 230 178 106
2.320000 -2.400000 -14.080000 227 174 102
4.430769 -2.953846 -17.329231 233 180 110
4.398791 -2.900302 -17.015106 235 182 112
4.543210 -2.962963 -17.382715 232 179 109
5.166667 -3.333333 -19.555555 232 179 109
5.222222 -3.333333 -19.555555 233 180 110
5.187713 -3.276450 -19.221844 234 181 111
5.069307 -3.168317 -18.587460 234 181 111
5.122112 -3.168317 -18.587460 233 180 110
4.930818 -3.018868 -17.710691 231 178 108
4.996845 -3.028391 -17.766562 228 175 105
3.212852 -1.927711 -11.309237 228 175 105
5.196141 -3.086817 -18.109325 235 182 112
5.247589 -3.086817 -18.109325 239 186 116
5.299036 -3.086817 -18.109325 238 185 115
5.151703 -2.972136 -17.436533 234 181 111
5.000000 -2.857143 -16.761906 232 179 109
4.859599 -2.750716 -16.137535 232 179 109
4.863636 -2.727273 -16.000000 233 180 110
4.909091 -2.727273 -16.000000 232 179 109
4.926554 -2.711864 -15.909604 230 177 107
4.971751 -2.711864 -15.909604 231 178 108
5.192983 -2.807018 -16.467836 234 181 111
5.286136 -2.831858 -16.613569 232 179 109
5.413174 -2.874252 -16.862276 228 175 105
5.380531 -2.831858 -16.613569 228 174 104
5.154062 -2.689076 -15.775910 229 175 105
5.127072 -2.651934 -15.558011 231 177 108
5.142857 -2.637363 -15.472528 227 173 103
5.186813 -2.637363 -15.472528 219 165 95
5.132075 -2.587601 -15.180593 221 167 96
5.175202 -2.587601 -15.180593 224 171 100
5.190349 -2.573727 -15.099195 229 176 105
5.233244 -2.573727 -15.099195 226 173 103
5.276139 -2.573727 -15.099195 220 168 98
5.319035 -2.573727 -15.099195 223 170 102
6.451613 -3.096774 -18.167742 224 171 104
5.400504 -2.418136 -14.186398 220 166 99
5.000000 -2.222222 -13.037037 216 164 96
4.956720 -2.186788 -12.829157 217 165 97
4.260708 -1.787709 -10.487896 223 173 106
5.120000 -2.133333 -12.515555 224 174 107
4.352941 -1.764706 -10.352942 218 169 103
4.318841 -1.739130 -10.202899 220 171 105
5.020920 -2.008368 -11.782427 226 177 111
7.323383 -2.388060 -14.009951 203 158 98
5.147826 -1.669565 -9.794783 200 155 96
7.440000 -2.400000 -14.080000 196 151 94
7.711340 -2.474227 -14.515464 195 150 93
7.752577 -2.474227 -14.515464 203 156 99
7.617128 -2.418136 -14.186398 203 157 99
5.033113 -1.589404 -9.324503 202 157 98
7.697733 -2.418136 -14.186398 207 163 103
7.718593 -2.412060 -14.150754 207 163 102
7.778337 -2.418136 -14.186398 209 164 102
7.818640 -2.418136 -14.186398 211 164 101
6.393701 -1.889764 -11.086615 188 149 96
6.425197 -1.889764 -11.086615 187 149 98
7.161572 -2.096070 -12.296944 185 147 100
9.609196 -2.758621 -16.183908 206 166 108
11.328859 -3.221477 -18.899328 192 148 90
8.153846 -2.307692 -13.538462 194 150 94
8.133652 -2.291169 -13.441527 202 161 106
9.982508 -2.798834 -16.419825 198 159 106
10.238095 -2.857143 -16.761906 192 156 105
13.687500 -3.750000 -22.000000 188 146 90
0.000000 -0.504393 -2.910594 232 180 110
0.008264 -0.504132 -2.909091 229 177 108
0.016529 -0.504132 -2.909091 235 183 114
0.024793 -0.504132 -2.909091 235 183 115
1.032258 -1.967742 -11.354838 237 184 118
1.113924 -2.059072 -11.881857 238 186 121
1.554286 -2.788571 -16.091429 239 188 123
1.192547 -2.020704 -11.660456 238 189 125
1.412888 -2.329356 -13.441527 238 189 125
1.458034 -2.340528 -13.505995 234 186 121
2.294118 -3.588235 -20.705883 235 186 120
1.696970 -2.464647 -14.222222 230 180 113
1.869565 -2.652174 -15.304348 231 180 112
1.989418 -2.582011 -14.899471 231 179 111
2.005222 -2.548303 -14.704961 232 180 110
2.005115 -2.496164 -14.404092 233 180 110
2.010050 -2.452261 -14.150754 224 171 101
2.024814 -2.421836 -13.975186 218 165 95
2.064516 -2.421836 -13.975186 221 168 98
2.104218 -2.421836 -13.975186 224 171 101
2.143921 -2.421836 -13.975186 233 180 110
2.189055 -2.427861 -14.009951 234 181 111
2.245614 -2.446115 -14.115288 233 181 109
2.285714 -2.446115 -14.115288 234 181 109
2.325814 -2.446115 -14.115288 233 180 107
2.420513 -2.502564 -14.441026 231 178 105
4.556962 -3.088608 -17.822784 236 183 113
4.507740 -3.021672 -17.436533 238 185 115
4.733119 -3.138264 -18.109325 238 185 115
4.976589 -3.264214 -18.836121 236 183 113
5.133106 -3.331058 -19.221844 233 180 110
5.100671 -3.275168 -18.899328 231 178 108
5.137124 -3.264214 -18.836121 230 177 107
5.190636 -3.264214 -18.836121 227 174 104
5.118012 -3.031056 -17.490683 240 187 117
4.952381 -2.904762 -16.761906 236 183 113
4.772727 -2.772727 -16.000000 234 181 111
4.859599 -2.796562 -16.137535 228 175 105
4.905444 -2.796562 -16.137535 227 174 104
4.937143 -2.788571 -16.091429 228 175 105
4.954545 -2.772727 -16.000000 231 178 108
5.028572 -2.788571 -16.091429 232 179 109
5.285714 -2.904762 -16.761906 232 179 109
5.365270 -2.922156 -16.862276 230 177 107
5.212465 -2.764873 -15.954674 228 174 103
5.257791 -2.764873 -15.954674 229 173 103
5.229050 -2.726257 -15.731844 230 174 104
5.132075 -2.630728 -15.180593 224 170 99
5.189189 -2.637838 -15.221622 225 171 99
5.232432 -2.637838 -15.221622 229 175 104
5.275676 -2.637838 -15.221622 228 176 104
5.276139 -2.616622 -15.099195 230 177 106
5.319035 -2.616622 -15.099195 230 176 108
4.258555 -1.855513 -10.707224 222 170 101
4.264650 -1.844990 -10.646502 216 164 95
4.230913 -1.817505 -10.487896 217 165 97
4.205883 -1.794118 -10.352942 221 170 102
4.235294 -1.794118 -10.352942 223 172 104
5.155556 -2.168889 -12.515555 225 175 107
5.191111 -2.168889 -12.515555 224 173 107
5.495327 -2.280374 -13.158878 226 175 109
4.352941 -1.794118 -10.352942 224 173 107
4.318841 -1.768116 -10.202899 220 169 103
5.940594 -2.415842 -13.940594 221 171 103
5.092174 -1.697391 -9.794783 207 159 99
5.084629 -1.685665 -9.727116 197 150 90
5.138889 -1.694444 -9.777778 199 153 93
5.175652 -1.697391 -9.794783 205 159 99
10.498245 -3.424562 -19.761404 200 154 94
7.617128 -2.458438 -14.186398 200 152 92
5.033113 -1.615894 -9.324503 200 154 93
5.680297 -1.814126 -10.468402 205 159 97
5.657459 -1.797422 -10.372007 208 163 101
6.331384 -1.902534 -10.978558 198 160 105
6.387475 -1.909980 -11.021526 192 153 99
7.114967 -2.117137 -12.216920 190 151 101
11.221477 -3.275168 -18.899328 205 164 104
11.328859 -3.275168 -18.899328 200 155 95
8.018912 -2.307329 -13.314421 200 155 97
8.018824 -2.296471 -13.251764 204 161 104
8.094563 -2.307329 -13.314421 204 165 110
13.437500 -3.812500 -22.000000 196 160 107
-0.008264 -0.512397 -2.909091 224 172 100
0.000000 -0.512397 -2.909091 226 173 103
0.008256 -0.511868 -2.906089 226 173 103
0.016529 -0.512397 -2.909091 236 183 115
0.024793 -0.512397 -2.909091 235 182 114
1.064133 -2.356295 -13.377672 237 183 115
1.848375 -3.581228 -20.332130 236 182 115
1.892473 -3.555556 -20.186380 240 187 120
1.554286 -2.834286 -16.091429 241 188 122
1.600000 -2.834286 -16.091429 235 183 117
1.608939 -2.770950 -15.731844 236 186 119
1.672316 -2.802260 -15.909604 235 185 118
1.458034 -2.378897 -13.505995 227 177 109
2.447761 -3.701493 -21.014925 233 181 112
1.696970 -2.505050 -14.222222 231 179 110
1.869565 -2.695652 -15.304348 232 179 111
1.989418 -2.624339 -14.899471 230 177 108
2.005222 -2.590078 -14.704961 234 181 111
2.041667 -2.583333 -14.666667 231 178 108
2.061856 -2.556701 -14.515464 226 173 103
2.103093 -2.556701 -14.515464 223 170 100
2.101010 -2.505050 -14.222222 227 174 104
2.136020 -2.498741 -14.186398 230 177 107
2.149254 -2.467662 -14.009951 234 181 111
2.189055 -2.467662 -14.009951 235 182 111
3.200000 -2.717808 -15.430137 232 179 109
4.826230 -3.252459 -18.465574 231 178 108
5.010101 -3.340067 -18.962963 228 175 105
5.133106 -3.385665 -19.221844 230 177 107
5.187713 -3.385665 -19.221844 233 180 110
3.276342 -1.972167 -11.196819 237 184 114
3.206166 -1.911368 -10.851638 239 186 116
3.236994 -1.911368 -10.851638 237 184 114
3.267823 -1.911368 -10.851638 231 178 108
4.782123 -2.770950 -15.731844 230 177 107
4.951289 -2.842407 -16.137535 231 178 108
5.011494 -2.850575 -16.183908 231 178 108
5.432099 -3.061728 -17.382715 235 182 112
5.481482 -3.061728 -17.382715 234 181 111
7.520000 -3.306667 -18.773333 219 166 97
7.523179 -3.284768 -18.649006 214 161 92
4.931035 -2.137931 -12.137931 216 163 94
4.965517 -2.137931 -12.137931 222 170 101
5.000000 -2.137931 -12.137931 221 171 102
5.056277 -2.147186 -12.190476 222 172 103
5.090909 -2.147186 -12.190476 220 169 101
5.532710 -2.317757 -13.158878 219 168 101
7.426791 -3.090343 -17.545172 222 171 104
10.385965 -3.480702 -19.761404 211 162 101
10.442105 -3.480702 -19.761404 220 171 109
7.916230 -2.596859 -14.743456 199 150 88
7.657431 -2.498741 -14.186398 201 153 91
7.697733 -2.498741 -14.186398 202 156 94
7.738035 -2.498741 -14.186398 207 160 98
7.863747 -2.413625 -13.703163 204 163 106
7.642353 -2.334118 -13.251764 203 163 106
7.941606 -2.413625 -13.703163 204 163 106
7.754137 -2.345154 -13.314421 201 159 106
7.904535 -2.367542 -13.441527 188 146 95
7.942721 -2.367542 -13.441527 186 145 90
7.886793 -2.339623 -13.283019 190 149 90
8.000000 -2.361905 -13.409524 207 163 103
8.038095 -2.361905 -13.409524 212 167 107
8.018912 -2.345154 -13.314421 205 159 100
7.981265 -2.323185 -13.189695 200 156 97
7.944315 -2.301624 -13.067286 199 158 100
8.037383 -2.317757 -13.158878 191 154 97
13.500000 -3.875000 -22.000000 189 152 96
13.562500 -3.875000 -22.000000 188 150 92
13.625000 -3.875000 -22.000000 195 153 93
13.687500 -3.875000 -22.000000 208 162 101
-0.008180 -0.515337 -2.879346 228 176 105
0.000000 -0.519320 -2.901597 233 180 109
0.008256 -0.520124 -2.906089 233 180 110
0.016529 -0.520661 -2.909091 233 180 110
0.024793 -0.520661 -2.909091 235 182 113
0.033058 -0.520661 -2.909091 233 181 114
0.091472 -0.480229 -2.683182 239 186 116
0.098859 -0.479087 -2.676806 241 187 117
1.196262 -3.140187 -17.545172 233 180 114
1.295950 -3.140187 -17.545172 238 184 116
1.325444 -2.982249 -16.662722 233 178 106
1.848375 -3.638989 -20.332130 238 181 113
1.892473 -3.612903 -20.186380 238 182 114
1.549857 -2.871795 -16.045584 235 181 111
1.595442 -2.871795 -16.045584 229 175 107
1.636364 -2.863636 -16.000000 230 177 108
1.696275 -2.888252 -16.137535 234 181 111
1.703081 -2.823529 -15.775910 232 179 108
1.803468 -2.913295 -16.277456 231 178 107
1.828571 -2.880000 -16.091429 234 180 109
2.285714 -3.512195 -19.623693 235 181 110
2.341463 -3.512195 -19.623693 236 182 112
2.046997 -2.631854 -14.704961 235 182 112
2.083333 -2.625000 -14.666667 237 184 114
2.113990 -2.611399 -14.590673 235 182 112
2.144330 -2.597938 -14.515464 235 182 112
2.185567 -2.597938 -14.515464 235 182 112
2.181818 -2.545455 -14.222222 235 182 112
2.303665 -2.638743 -14.743456 234 181 109
2.434783 -2.739130 -15.304348 234 180 108
3.010309 -2.597938 -14.515464 231 178 108
4.139860 -3.524476 -19.692308 236 183 113
5.023891 -3.440273 -19.221844 235 182 112
5.010101 -3.393939 -18.962963 233 180 110
5.030100 -3.371238 -18.836121 234 181 111
5.170068 -3.428571 -19.156462 234 181 111
3.175337 -1.942196 -10.851638 237 184 114
3.206166 -1.942196 -10.851638 237 184 114
3.236994 -1.942196 -10.851638 237 184 114
4.859599 -2.888252 -16.137535 233 180 110
4.933718 -2.904899 -16.230547 231 178 108
4.965517 -2.896552 -16.183908 235 182 112
5.205970 -3.008955 -16.811941 238 185 115
5.835294 -2.964706 -16.564707 229 174 104
4.920354 -2.230088 -12.460177 217 164 94
4.880174 -2.196079 -12.270152 218 164 94
4.915033 -2.196079 -12.270152 210 157 87
4.949891 -2.196079 -12.270152 210 157 87
4.984749 -2.196079 -12.270152 214 161 91
4.987013 -2.181818 -12.190476 215 162 93
5.000000 -2.172414 -12.137931 219 167 98
5.056277 -2.181818 -12.190476 221 169 100
5.090909 -2.181818 -12.190476 221 170 100
9.081081 -3.027027 -16.912912 212 163 100
7.958115 -2.638743 -14.743456 213 166 103
7.896641 -2.604651 -14.552972 217 171 110
9.197605 -3.017964 -16.862276 218 172 111
9.268011 -2.904899 -16.230547 201 156 100
9.314121 -2.904899 -16.230547 205 161 104
9.360230 -2.904899 -16.230547 202 160 101
9.656805 -2.982249 -16.662722 202 158 99
9.879519 -3.036144 -16.963856 205 160 101
8.057280 -2.405728 -13.441527 212 167 108
8.076191 -2.400000 -13.409524 209 163 102
8.037736 -2.377358 -13.283019 199 153 92
8.018735 -2.360656 -13.189695 191 148 86
8.037383 -2.355140 -13.158878 194 152 91
8.037210 -2.344186 -13.097674 190 149 87
8.074419 -2.344186 -13.097674 198 156 94
8.111628 -2.344186 -13.097674 212 166 104
9.954545 -2.863636 -16.000000 213 165 102
-0.015245 -0.487851 -2.683182 234 181 114
-0.007623 -0.487851 -2.683182 235 182 114
0.000000 -0.527563 -2.901597 239 187 118
0.016529 -0.528926 -2.909091 238 184 114
0.049357 -0.526478 -2.895630 239 190 124
0.053384 -0.488084 -2.684461 236 187 122
0.061010 -0.488084 -2.684461 239 190 124
0.068966 -0.490421 -2.697318 240 191 124
0.076628 -0.490421 -2.697318 241 191 125
0.083849 -0.487851 -2.683182 235 184 116
0.091211 -0.486461 -2.675534 235 182 112
0.098578 -0.485308 -2.669194 239 185 115
0.106413 -0.486461 -2.675534 239 185 117
1.196262 -3.190031 -17.545172 238 185 118
1.246106 -3.190031 -17.545172 238 185 117
1.283951 -3.160494 -17.382715 238 183 114
1.325444 -3.029586 -16.662722 235 179 106
1.420118 -3.029586 -16.662722 238 181 108
1.389356 -2.868347 -15.775910 234 177 104
1.467049 -2.934098 -16.137535 240 182 111
1.892473 -3.670251 -20.186380 239 182 112
1.558739 -2.934098 -16.137535 235 179 108
1.604585 -2.934098 -16.137535 229 173 103
1.636364 -2.909091 -16.000000 230 175 104
1.710983 -2.959538 -16.277456 238 183 110
1.757225 -2.959538 -16.277456 238 183 110
2.388060 -3.820895 -21.014925 231 176 103
2.046997 -2.673629 -14.704961 236 183 113
2.083333 -2.666667 -14.666667 236 183 113
2.125000 -2.666667 -14.666667 231 178 108
2.155440 -2.652850 -14.590673 231 178 108
2.208333 -2.666667 -14.666667 234 181 111
2.250000 -2.666667 -14.666667 233 180 110
2.391304 -2.782609 -15.304348 232 178 107
2.706949 -3.093656 -17.015106 231 177 105
3.296970 -3.103030 -17.066668 231 179 106
3.376147 -3.131499 -17.223242 230 178 105
3.007833 -2.673629 -14.704961 230 177 106
3.010309 -2.639175 -14.515464 232 179 109
3.051546 -2.639175 -14.515464 233 180 110
5.115646 -3.482993 -19.156462 238 185 116
5.170068 -3.482993 -19.156462 237 184 114
5.722628 -3.737226 -20.554745 236 183 113
3.345756 -2.120083 -11.660456 237 184 115
3.378882 -2.120083 -11.660456 237 184 115
3.412008 -2.120083 -11.660456 234 181 111
4.310881 -2.652850 -14.590673 236 183 113
3.249516 -1.980658 -10.893617 239 186 116
4.393783 -2.652850 -14.590673 237 184 114
5.110448 -3.056716 -16.811941 235 182 112
5.158209 -3.056716 -16.811941 234 181 111
5.458824 -3.011765 -16.564707 235 179 107
4.875000 -2.666667 -14.666667 235 179 108
6.110033 -3.313916 -18.226538 234 178 105
4.819753 -2.528395 -13.906173 233 179 107
5.788235 -3.011765 -16.564707 234 180 108
5.620397 -2.900850 -15.954674 230 174 104
7.875000 -4.000000 -22.000000 227 170 99
4.975391 -2.290828 -12.599552 222 168 98
4.955752 -2.265487 -12.460177 220 166 96
4.991150 -2.265487 -12.460177 218 164 94
7.523179 -3.390728 -18.649006 221 167 97
5.118568 -2.290828 -12.599552 221 167 97
5.142857 -2.285714 -12.571428 220 167 96
5.144124 -2.270510 -12.487804 223 169 99
5.056277 -2.216450 -12.190476 222 169 98
5.090909 -2.216450 -12.190476 229 177 106
9.931034 -3.210031 -17.655172 209 164 103
9.648485 -3.103030 -17.066668 202 158 98
9.523809 -3.047619 -16.761906 199 154 95
9.348837 -2.976744 -16.372093 197 151 93
9.314121 -2.951009 -16.230547 202 156 98
9.783133 -3.084337 -16.963856 201 156 96
9.656805 -3.029586 -16.662722 200 153 92
9.879519 -3.084337 -16.963856 208 161 98
9.751479 -3.029586 -16.662722 211 167 103
8.077670 -2.485437 -13.669903 194 151 95
8.116505 -2.485437 -13.669903 195 152 98
8.095466 -2.443914 -13.441527 207 161 100
8.114285 -2.438095 -13.409524 195 149 87
8.075472 -2.415094 -13.283019 189 144 80
8.037383 -2.392523 -13.158878 193 149 84
8.018561 -2.375870 -13.067286 200 155 90
8.037037 -2.370370 -13.037037 211 166 101
8.092808 -2.375870 -13.067286 208 161 96
9.954545 -2.909091 -16.000000 209 160 96
-0.043103 -0.560345 -3.034483 244 189 125
-0.034483 -0.560345 -3.034483 239 184 119
-0.025862 -0.560345 -3.034483 236 181 116
-0.017223 -0.559742 -3.031216 238 183 118
0.000000 -0.535806 -2.901597 242 190 121
0.008243 -0.535806 -2.901597 239 188 118
0.015166 -0.492891 -2.669194 239 188 119
0.024793 -0.537190 -2.909091 239 189 121
0.030549 -0.496420 -2.688305 238 188 122
0.038186 -0.496420 -2.688305 238 188 123
0.045758 -0.495710 -2.684461 242 191 127
0.053384 -0.495710 -2.684461 245 195 130
0.061010 -0.495710 -2.684461 243 192 126
0.068966 -0.498084 -2.697318 240 189 122
0.076227 -0.495474 -2.683182 241 189 122
0.083810 -0.495238 -2.681905 236 183 117
0.091211 -0.494062 -2.675534 234 179 112
0.098719 -0.493593 -2.672995 233 178 110
0.106312 -0.493593 -2.672995 234 179 112
0.114449 -0.495947 -2.685741 241 187 120
1.095238 -3.095238 -16.761906 238 184 118
1.142857 -3.095238 -16.761906 240 186 118
1.246106 -3.239875 -17.545172 235 180 111
1.295950 -3.239875 -17.545172 234 178 110
1.333333 -3.209877 -17.382715 232 175 108
0.991150 -2.300885 -12.460177 228 173 102
1.022026 -2.290749 -12.405287 228 173 99
1.045752 -2.265795 -12.270152 230 175 102
1.078261 -2.260870 -12.243478 233 177 105
1.434174 -2.913165 -15.775910 238 182 110
1.504274 -2.962963 -16.045584 236 181 110
1.549857 -2.962963 -16.045584 235 181 111
1.590909 -2.954545 -16.000000 234 180 111
1.613445 -2.913165 -15.775910 237 183 114
1.658263 -2.913165 -15.775910 240 186 117
1.707865 -2.921348 -15.820225 239 184 114
1.955556 -2.888889 -15.644444 235 179 109
2.000000 -2.888889 -15.644444 233 177 107
2.057743 -2.729659 -14.782152 238 183 115
2.094241 -2.722513 -14.743456 234 180 112
2.141732 -2.729659 -14.782152 232 177 109
2.172324 -2.715405 -14.704961 232 178 110
2.947368 -3.421053 -18.526316 233 179 109
3.248485 -3.151515 -17.066668 238 183 110
3.218935 -3.076923 -16.662722 237 182 109
3.345454 -3.151515 -17.066668 234 179 107
2.969072 -2.680412 -14.515464 234 178 107
3.010309 -2.680412 -14.515464 237 181 111
4.139860 -3.636364 -19.692308 238 181 111
4.449704 -3.076923 -16.662722 239 187 120
4.497041 -3.076923 -16.662722 240 187 117
4.401146 -2.979943 -16.137535 237 184 114
4.538012 -3.040936 -16.467836 239 185 115
4.492836 -2.979943 -16.137535 237 183 115
4.347826 -2.826087 -15.304348 236 183 116
3.380753 -2.175732 -11.782427 238 185 118
5.458824 -3.058824 -16.564707 234 182 114
4.837209 -2.687339 -14.552972 235 183 114
4.916667 -2.708333 -14.666667 232 178 109
6.161812 -3.365696 -18.226538 232 178 107
6.213592 -3.365696 -18.226538 235 179 108
4.780247 -2.567901 -13.906173 235 181 110
4.807882 -2.561576 -13.871922 235 181 111
5.575071 -2.946176 -15.954674 235 182 112
5.620397 -2.946176 -15.954674 235 179 108
5.665722 -2.946176 -15.954674 232 176 104
5.463415 -2.818428 -15.262873 231 175 102
4.975391 -2.326622 -12.599552 222 168 98
5.046980 -2.326622 -12.599552 230 176 105
5.015452 -2.295806 -12.432672 226 172 101
5.050773 -2.295806 -12.432672 220 165 93
5.142857 -2.321429 -12.571428 223 168 95
5.190156 -2.326622 -12.599552 225 170 97
7.310705 -2.715405 -14.704961 220 170 101
7.413612 -2.722513 -14.743456 219 169 101
5.882828 -2.101010 -11.377778 217 167 99
5.867735 -2.084168 -11.286573 220 169 101
5.093426 -1.799308 -9.743944 220 168 98
5.059829 -1.777778 -9.627351 225 172 103
5.157712 -1.802426 -9.760832 232 178 108
9.730408 -3.260188 -17.655172 218 166 104
10.421053 -3.421053 -18.526316 208 160 98
9.981192 -3.260188 -17.655172 205 158 96
10.068536 -3.239875 -17.545172 200 152 89
9.360230 -2.997118 -16.230547 198 151 87
9.406340 -2.997118 -16.230547 204 156 93
9.704142 -3.076923 -16.662722 211 163 99
9.751479 -3.076923 -16.662722 206 159 96
8.077670 -2.524272 -13.669903 202 157 98
8.095466 -2.482100 -13.441527 207 161 101
8.133652 -2.482100 -13.441527 199 153 92
10.282282 -3.123123 -16.912912 194 148 87
10.519877 -3.180428 -17.223242 200 154 92
8.000000 -2.407408 -13.037037 209 163 99
8.037037 -2.407408 -13.037037 214 168 104
8.092808 -2.412993 -13.067286 209 162 100
10.366864 -3.076923 -16.662722 209 161 101
-0.043103 -0.568965 -3.034483 239 184 119
-0.034483 -0.568965 -3.034483 237 182 116
-0.025862 -0.568965 -3.034483 237 182 116
0.015166 -0.500474 -2.669194 237 189 120
0.030549 -0.504057 -2.688305 233 183 117
0.038186 -0.504057 -2.688305 237 186 121
0.045758 -0.503336 -2.684461 240 189 125
0.053384 -0.503336 -2.684461 241 188 124
0.061010 -0.503336 -2.684461 239 186 120
0.068637 -0.503336 -2.684461 235 181 113
0.076190 -0.502857 -2.681905 233 179 111
0.083810 -0.502857 -2.681905 237 183 116
0.091385 -0.502618 -2.680628 233 179 111
0.098719 -0.501187 -2.672995 232 179 111
0.106061 -0.500000 -2.666667 234 181 113
0.113636 -0.500000 -2.666667 240 186 118
0.121212 -0.500000 -2.666667 237 184 116
0.928074 -2.450116 -13.067286 236 181 110
0.965197 -2.450116 -13.067286 238 182 113
0.951542 -2.325991 -12.405287 242 185 119
0.978166 -2.305677 -12.296944 237 182 114
1.006508 -2.290673 -12.216920 235 181 111
1.043478 -2.295652 -12.243478 232 178 107
1.078261 -2.295652 -12.243478 231 177 105
1.120350 -2.310722 -12.323852 235 182 109
1.590909 -3.000000 -16.000000 234 181 110
1.300226 -2.383747 -12.713318 240 187 116
1.336343 -2.383747 -12.713318 243 190 119
1.429787 -2.246809 -11.982979 238 183 111
1.463830 -2.246809 -11.982979 237 183 110
1.828571 -2.742857 -14.628572 238 181 110
1.889764 -2.771654 -14.782152 238 181 110
1.931759 -2.771654 -14.782152 236 179 108
2.052356 -2.764398 -14.743456 240 185 117
2.088773 -2.757180 -14.704961 239 184 117
2.130548 -2.757180 -14.704961 237 183 116
2.947368 -3.473684 -18.526316 240 186 116
2.755287 -3.190332 -17.015106 236 182 112
2.614084 -2.974648 -15.864789 228 175 104
2.696629 -2.966292 -15.820225 233 179 109
2.956522 -2.869565 -15.304348 236 181 109
3.000000 -2.869565 -15.304348 237 182 110
3.043478 -2.869565 -15.304348 235 179 108
2.966058 -2.757180 -14.704961 234 178 106
2.953846 -2.707692 -14.441026 231 174 103
2.994872 -2.707692 -14.441026 233 176 105
3.067358 -2.735751 -14.590673 234 177 106
5.235294 -3.882353 -20.705883 235 185 118
4.497041 -3.124260 -16.662722 239 187 117
4.544379 -3.124260 -16.662722 238 185 115
4.347826 -2.869565 -15.304348 240 187 121
5.626911 -3.229358 -17.223242 234 184 116
5.675841 -3.229358 -17.223242 233 183 116
5.724771 -3.229358 -17.223242 235 184 117
4.780247 -2.607407 -13.906173 235 180 110
2.768794 -1.497872 -7.988653 233 180 111
7.426415 -3.984906 -21.252831 234 181 112
5.117117 -2.378378 -12.684685 229 175 103
5.073171 -2.341463 -12.487804 223 169 96
5.108647 -2.341463 -12.487804 223 167 94
6.647564 -3.025788 -16.137535 224 168 94
6.739255 -3.025788 -16.137535 229 173 99
6.746439 -3.008547 -16.045584 230 174 100
7.765472 -3.439739 -18.345278 228 171 99
7.973422 -3.508306 -18.710964 223 166 95
8.484848 -3.200000 -17.066668 221 170 101
8.428572 -3.142857 -16.761906 220 169 102
8.476191 -3.142857 -16.761906 216 166 98
8.705167 -3.209726 -17.118542 215 165 96
4.629571 -1.678855 -8.953895 222 172 104
5.005128 -1.805128 -9.627351 222 170 101
4.956229 -1.777778 -9.481482 224 171 102
5.016949 -1.789831 -9.545763 230 176 106
5.044068 -1.789831 -9.545763 237 183 111
10.557823 -3.591837 -19.156462 218 163 100
10.612245 -3.591837 -19.156462 218 164 100
10.926829 -3.679442 -19.623693 221 169 106
10.961938 -3.653979 -19.487888 210 161 99
11.017301 -3.653979 -19.487888 210 163 99
10.118380 -3.289720 -17.545172 202 154 88
7.269488 -2.351893 -12.543429 213 165 99
7.354260 -2.367713 -12.627803 212 164 99
7.615561 -2.416476 -12.887872 203 156 95
7.652174 -2.416476 -12.887872 203 156 96
10.005899 -3.115044 -16.613569 209 163 103
9.681818 -3.000000 -16.000000 206 160 100
10.100295 -3.115044 -16.613569 200 154 94
10.330330 -3.171171 -16.912912 203 157 95
10.378378 -3.171171 -16.912912 206 160 96
8.037037 -2.444444 -13.037037 209 164 100
8.092808 -2.450116 -13.067286 209 163 102
-0.034483 -0.577586 -3.034483 238 184 116
-0.025862 -0.577586 -3.034483 233 179 112
-0.017223 -0.576964 -3.031216 233 179 113
0.037987 -0.509022 -2.674264 234 183 117
0.045584 -0.509022 -2.674264 235 184 119
0.053081 -0.508057 -2.669194 233 180 115
0.057814 -0.484192 -2.543812 234 181 112
0.065011 -0.483973 -2.542664 235 181 110
0.072235 -0.483973 -2.542664 226 172 101
0.083531 -0.508780 -2.672995 234 179 109
0.935065 -2.320346 -12.190476 244 189 120
0.969697 -2.320346 -12.190476 242 187 119
1.006508 -2.325380 -12.216920 237 183 115
1.048035 -2.340611 -12.296944 233 179 109
1.085339 -2.345733 -12.323852 236 183 111
1.362530 -2.608273 -13.703163 230 178 102
1.401460 -2.608273 -13.703163 234 182 107
1.725947 -3.125365 -16.419825 234 182 107
1.429787 -2.280851 -11.982979 236 182 111
1.463830 -2.280851 -11.982979 238 184 113
